ply
format ascii 1.0
comment Created by Open3D
element vertex 346
property double x
property double y
property double z
end_header
297.987 6.203 2.6947
312.676 21.9837 2.2909
328.332 39.0509 2.7847
493.657 49.1115 2.4855
225.092 56.9815 2.955
219.626 61.1142 3.2956
211.972 62.0091 2.8373
269.878 65.0292 2.8276
227.07 66.9487 2.9772
264.068 110.027 3.5352
268.103 112.697 3.9177
426.639 126.223 3.9304
264.065 130.916 4.0257
486.014 217.516 3.8997
10.6384 86.7263 4.9253
126.829 191.051 5.1127
208.836 213.766 5.6474
193.764 239.872 5.0041
506.87 261.925 4.9808
158.411 263.773 5.8404
67.4116 269.58 6.703
435.841 359.05 6.0195
73.2783 353.891 6.5628
89.7376 354.036 6.6746
6.5878 355.631 7.644
386.012 366.886 7.2024
70.323 369.936 7.0127
93.6012 378.411 6.9124
76.1747 385.214 7.0798
99.9707 383.884 7.3854
79.97 386.322 6.9049
351.752 385.548 6.7
83.3522 391.021 6.7251
402.002 397.508 7.5442
332.936 400.946 6.6525
427.801 400.778 6.6042
381.791 407.07 6.603
333.274 407.259 7.0092
361.444 412.473 6.7554
345.06 414.365 6.6063
366.622 415.984 6.8804
427.378 431.341 7.0746
394.173 434.064 7.1707
408.675 434.034 6.8956
384.984 436.069 7.0835
387.315 440.489 6.8959
69.9906 402.051 7.8519
118.273 411.656 7.6412
108.315 414.796 7.6687
109.992 421.956 7.5592
101.121 423.875 8.0191
239.157 470.945 8.2924
367.023 478.308 7.6164
450.487 485.337 8.5357
442.034 499.571 7.8179
350.633 499.75 7.7729
146.969 500.755 8.2533
354.415 506.992 7.4817
433.704 507.693 8.4428
8.2216 499.596 8.9298
114.026 415.042 13.0287
310.319 8.9783 14.3633
111.243 389.382 14.7248
95.203 392.234 13.7936
308.428 16.1118 16.5981
377.126 80.7758 17.3006
307.626 6.6047 17.5332
313.251 8.0624 17.8217
304.796 11.4388 17.2428
311.161 15.1678 17.4465
366.04 62.7018 18.8058
375.205 83.0714 18.9752
378.577 77.6817 19.9136
175.492 111.217 20.4785
437.156 158.492 20.7292
255.276 3.8659 20.1244
45.756 25.1771 21.0353
325.258 33.3379 20.2981
177.179 113.814 20.5052
102 124.088 21.1774
435.999 138.639 22.2095
430.577 145.577 21.3596
435.707 153.768 21.8774
157.77 156.021 20.5818
161.644 205.348 21.461
193.908 493.697 21.0446
204.17 500.036 20.6358
112.993 5.8636 21.8464
318.244 10.3327 22.4997
147.282 24.985 21.8388
390.959 31.5577 21.8022
395.222 39.0109 22.3692
81.0391 40.0095 22.022
78.9752 47.2955 22.126
77.0575 49.5784 21.6538
333.471 56.8759 22.0522
217.01 68.3753 22.1006
387.991 71.4163 22.3024
70.9654 74.4221 22.2705
23.4904 75.0331 21.4933
292.258 76.325 21.9611
486.081 79.9648 21.9824
393.328 81.3383 21.4531
414.145 83.941 22.2867
44.4216 85.6442 21.7023
400.479 86.1489 21.5611
256.963 96.2375 21.456
32.6051 98.8872 21.7821
25.06 99.9759 21.7866
463.151 102.978 22.0519
443.004 103.874 21.7817
472.933 103.55 21.7579
392.989 111.562 22.4405
85.6115 112.603 21.5745
106.079 112.82 21.4363
163.727 114.1 21.836
407.184 113.899 22.2165
431.696 114.279 21.8715
193.158 118.986 22.2513
59.9659 127.441 21.8639
371.364 126.492 22.3561
382.647 131.188 21.6899
434.842 137.365 22.1785
428.991 141.496 21.7117
113.63 149.833 21.441
426.488 152.354 22.1435
4.9915 154.406 22.2604
74.8282 165.497 20.6956
167.093 165.823 22.2231
97.3743 178.069 21.2689
296.42 182.508 22.0888
105.428 185.439 21.336
125.441 185.799 21.4983
14.2448 187.154 21.5953
279.194 187.314 21.4268
8.6338 189.887 21.9333
95.0609 189.89 22.5365
74.3672 196.049 21.5083
79.516 196.929 21.4522
163.172 208.495 21.5821
310.55 333.022 21.9196
32.9361 21.1895 23.5036
325.839 32.861 23.8959
45.5777 62.0629 22.5579
215.71 127.141 22.4074
259.085 134.245 23.4061
388.836 135.757 22.6697
440.689 136.748 22.7537
34.4186 140.218 22.5494
34.9724 146.028 22.9161
259.678 145.061 22.738
238.102 146.098 22.3984
38.1358 146.699 22.5858
35.8137 151.346 22.6845
443.371 151.462 23.034
256.927 153.115 22.0313
48.2742 156.946 23.0554
447.571 158.515 22.8904
52.9253 161.154 22.6987
265.027 161.707 22.8292
427.812 166.304 23.3961
7.4445 167.444 22.601
433.688 167.917 22.5983
448.537 168.261 22.4712
19.4609 173.208 23.2283
448.05 173.239 23.2439
489.599 176.776 22.9501
440.942 177.198 22.8049
52.2505 179.758 23.8916
291.995 180.671 22.9218
53.573 182.773 23.1416
192.016 184.285 22.5211
223.094 185.172 22.9276
378.62 187.115 22.9068
51.187 188.827 23.073
229.509 191.157 22.0266
242.899 190.242 23.3697
300.788 192.622 22.4489
212.244 198.228 23.2048
261.697 199.158 22.7518
257.615 202.481 22.8849
332.697 202.837 23.0597
478.079 208.892 22.8455
281.118 223.065 22.4239
357.728 233.821 23.3093
181.183 239.146 23.2879
307.815 252.834 22.399
306.546 326.221 22.9657
78.9698 46.9072 23.8304
367.545 63.519 24.5103
440.659 145.603 23.7455
4.0287 192.991 23.9055
163.344 204.711 24.0043
202.024 217.872 23.9629
242.188 234.77 24.2122
269.135 239.171 23.315
482.006 241.55 23.4336
459.878 250.066 23.3192
370.837 256.834 24.0526
206.345 272.998 24.6609
299.976 324.714 24.25
300.561 330.453 23.4937
303.83 333.327 23.2531
376.717 81.3582 24.8208
176.543 110.555 24.9874
178.26 111.93 25.6341
429.162 141.268 25.7323
427.881 145.003 24.4728
439.344 166.759 25.1656
47.2993 224.241 24.3668
479.125 276.232 25.129
459.632 277.257 24.8707
407.063 285.764 24.8112
423.437 285.546 24.9216
342.692 304.599 25.2689
318.992 304.92 25.4121
421.923 309.167 24.7835
413.136 311.139 25.1979
402.983 317.179 25.0143
302.161 321.5 24.0611
314.382 334.898 23.8636
306.493 338.787 25.1167
307.217 8.4605 26.7801
310.92 12.2305 25.9692
366.975 60.9264 26.3149
379.514 76.9604 25.9609
376.338 79.7364 25.2715
380.618 78.9995 26.0188
428.941 160.665 25.4895
15.1802 186.192 26.4461
65.4673 260.357 25.7581
163.842 318.77 25.5341
240.905 321.52 26.0108
207.602 330.888 26.1776
310.526 341.111 26.222
315.496 341.512 25.4457
321.993 357.118 25.7625
315.631 10.3223 27.0924
369.029 61.0139 27.0994
437.545 139.231 25.2487
439.051 156.496 26.0997
447.137 166.93 26.4972
10.3598 187.885 27.2688
23.8006 244.73 26.9859
17.9037 251.523 26.9692
50.569 271.075 27.0763
66.858 272.087 27.0067
303.059 320.557 28.0368
453.929 359.195 26.8669
306.915 382.276 27.1338
301.993 386.729 26.9195
298.391 396.058 27.5047
432.559 152.7 27.0154
441.951 160.388 28.281
301.015 324.139 28.2589
302.012 328.017 28.1313
395.224 387.317 27.6488
221.258 391.807 28.1563
423.861 392.216 27.8388
241.314 402.854 28.3476
263.804 403.93 27.8082
280.946 404.08 27.867
280.272 407.711 27.6022
282.068 417.974 28.4101
261.024 422.671 28.0966
283.024 422.748 27.6209
316.523 5.0222 29.3505
308.576 5.5245 28.7972
318.018 9.0601 29.4279
306.196 323.851 29.5637
124.268 340.769 29.2746
495.926 385.09 29.2479
266.471 422.145 28.8887
418.046 422.343 29.1376
255.968 426.286 29.3426
270.764 426.575 29.1548
253.698 430.038 29.4526
271.466 430.522 29.3626
260.9 430.023 29.9764
257.52 432.298 29.0979
275.382 444.784 29.4657
266.455 461.889 29.042
316.991 5.5837 29.613
73.9391 343.311 30.1089
76.8532 347.709 29.6664
129.22 362.172 30.9552
143.463 389.66 30.5706
147.369 391.227 30.294
145.63 396.206 30.4976
481.386 395.277 30.2326
488.554 404.354 30.6706
265.174 435.621 30.6166
273.445 435.809 29.6385
271.279 441.192 31.1384
255.832 448.147 31.0476
269.462 449.46 30.3736
260.4 457.912 29.9447
248.484 469.533 29.5733
352.913 472.189 30.0634
357.659 488.155 30.3757
503.187 415.833 31.5732
485.445 417.249 30.8805
196.074 417.827 30.6112
188.373 420.607 31.1438
184.367 421.252 31.1614
198.721 421.023 30.5898
261.96 420.687 30.5543
197.231 423.182 31.3993
202.921 423.423 30.8249
197.008 427.568 30.8121
447.676 447.368 30.6725
260.614 451.97 30.6467
199.995 456.156 29.6737
383.697 480.839 30.4342
412.722 480.269 31.2717
394.921 481.76 31.3722
369.393 485.468 30.9801
468.796 460.479 31.8018
399.441 500.397 32.2495
460.303 478.087 32.962
433.41 503.124 33.0626
464.352 486.402 34.6295
268.127 459.75 34.6244
494.614 464.326 34.9306
466.215 508.935 35.9516
498.111 495.42 36.3015
505.381 499.614 38.2418
487.127 507.414 37.3244
493.621 507.175 38.3634
498.813 506.286 38.7586
87.9741 431.824 40.4721
62.9119 374.621 41.6183
68.3974 368.829 43.2632
86.7661 398.634 42.8514
142.937 467.72 42.2641
118.615 473.024 42.9665
65.3629 372.422 43.1049
80.1262 481.931 43.8503
14.1135 362.868 45.034
76.248 480.889 44.4224
64.196 488.79 44.7797
52.4116 492.946 45.0129
68.8384 365.483 45.208
64.3228 370.863 44.561
42.7608 456.752 45.8288
22.8726 488.384 45.9713
